ply
format ascii 1.0
element vertex 1086
property float x
property float y
property float z
property uchar red
property uchar green
property uchar blue
end_header
393.378296 -1178.983521 -149.677567 72 73 68
396.177582 -1178.537720 -149.660736 74 75 70
398.971802 -1178.082397 -149.642654 79 80 74
401.730988 -1177.529907 -149.612183 81 82 76
404.489716 -1176.982788 -149.582367 83 84 77
407.246826 -1176.437744 -149.552765 85 86 78
409.954590 -1175.758057 -149.505981 86 87 81
412.623993 -1174.977661 -149.446320 89 90 82
415.306488 -1174.244019 -149.392578 92 93 85
418.002014 -1173.555908 -149.344589 91 92 83
420.702759 -1172.890625 -149.299469 92 93 83
423.453217 -1172.370361 -149.272842 91 93 83
426.235199 -1171.942627 -149.257980 91 93 82
429.038055 -1171.576172 -149.250931 91 93 82
431.854858 -1171.251099 -149.249146 93 95 84
434.673737 -1170.934937 -149.248474 94 96 85
437.488983 -1170.612061 -149.246948 96 97 86
440.322205 -1170.339844 -149.251877 94 96 85
443.179565 -1170.133545 -149.265213 95 96 85
446.039246 -1169.934937 -149.279541 93 94 83
448.903107 -1169.748779 -149.295425 93 93 82
451.786591 -1169.614136 -149.317917 94 95 84
454.669800 -1169.479492 -149.340408 94 95 83
457.548401 -1169.333984 -149.361496 93 94 82
460.466492 -1169.288818 -149.395432 91 93 81
463.388885 -1169.253906 -149.430695 92 94 82
466.313599 -1169.224243 -149.466629 88 90 79
469.261627 -1169.251709 -149.509888 86 88 77
472.215668 -1169.292603 -149.554886 85 87 76
475.134491 -1169.245605 -149.588593 84 86 75
478.062683 -1169.220703 -149.625168 83 84 76
481.003998 -1169.226807 -149.665710 82 83 75
483.919495 -1169.169556 -149.698135 81 82 74
486.833282 -1169.107910 -149.729996 81 82 74
489.752197 -1169.057861 -149.763351 82 83 75
492.683716 -1169.037476 -149.800507 84 85 77
495.641022 -1169.076782 -149.845337 85 86 78
498.573792 -1169.057251 -149.882629 82 83 75
501.621643 -1169.304443 -149.954208 92 93 85
504.551239 -1169.274292 -149.990143 95 96 88
507.696289 -1169.738770 -150.089706 74 74 66
510.689484 -1169.849731 -150.143829 72 72 64
513.830383 -1170.294312 -150.240891 101 101 92
516.786072 -1170.313965 -150.283279 113 113 104
519.693298 -1170.223755 -150.311554 119 119 109
522.065002 -1168.936768 -150.185699 106 106 96
523.917419 -1166.509644 -149.912857 81 79 70
-171.930359 -1151.552002 -135.831573 70 72 67
-169.413284 -1153.463989 -136.095383 76 78 73
-166.865906 -1155.231934 -136.342270 79 81 76
-164.278351 -1156.777832 -136.563019 81 83 78
-161.706711 -1158.496338 -136.804291 83 86 79
-159.148468 -1160.378540 -137.065079 88 91 84
-156.568726 -1162.170898 -137.315338 91 94 87
-153.935562 -1163.624268 -137.525574 92 95 88
-151.310165 -1165.196899 -137.750031 90 93 86
-148.687042 -1166.851685 -137.984329 91 94 87
-146.058380 -1168.529907 -138.221542 90 93 86
-143.436722 -1170.337036 -138.474136 87 90 83
-140.762360 -1171.777222 -138.683319 89 92 85
-137.977081 -1172.326904 -138.786926 88 91 84
-135.584320 -1176.354736 -139.303528 68 71 64
-133.024414 -1179.060669 -139.663406 51 53 47
-130.248108 -1179.903931 -139.802155 50 52 47
-127.553032 -1181.552856 -140.036728 60 62 57
-124.906555 -1183.750244 -140.336624 66 68 63
-122.109932 -1184.579102 -140.473923 64 66 61
-119.334167 -1185.663330 -140.641678 60 62 57
-116.616493 -1187.407349 -140.887985 48 50 45
-113.651520 -1186.623291 -140.833572 41 43 40
-110.552895 -1184.347290 -140.601532 41 43 40
-107.230431 -1179.449463 -140.057175 34 35 33
-102.451622 -1157.541016 -137.486588 19 21 18
-98.621170 -1145.592407 -136.101089 15 16 14
-95.588440 -1142.654297 -135.788528 14 15 13
-92.145248 -1134.391235 -134.841080 13 14 12
-89.014336 -1129.655273 -134.313599 13 15 12
-85.981323 -1125.924927 -133.905777 13 14 12
-82.992424 -1122.558716 -133.541138 13 13 11
-80.035980 -1119.428223 -133.204422 14 14 12
-77.100983 -1116.395386 -132.879150 14 14 12
-74.184822 -1113.431519 -132.561920 15 15 13
-71.292778 -1110.628540 -132.263718 15 15 13
-68.423103 -1107.977051 -131.983444 14 14 12
-65.582695 -1105.615845 -131.737686 13 13 11
-62.760124 -1103.375977 -131.506271 10 10 8
-59.954540 -1101.258667 -131.289368 9 9 8
-57.174644 -1099.454224 -131.109756 9 10 9
-54.399742 -1097.578613 -130.921509 9 11 10
-51.634056 -1095.713501 -130.734406 10 12 11
-48.879597 -1093.907227 -130.554230 11 13 12
-46.135849 -1092.157593 -130.380707 11 13 12
-43.403015 -1090.480591 -130.215790 11 13 12
-40.682457 -1088.929321 -130.065826 10 12 11
-37.971264 -1087.443604 -129.923615 11 13 12
-35.269009 -1086.025757 -129.789444 10 12 11
-32.574436 -1084.648438 -129.660049 10 12 11
-29.887613 -1083.325928 -129.537140 10 12 11
-27.205391 -1081.941772 -129.406754 11 13 12
-24.529297 -1080.546753 -129.274994 11 13 12
-21.860479 -1079.197510 -129.148621 10 12 11
-19.197279 -1077.813110 -129.017960 10 12 11
-16.540136 -1076.406250 -128.884506 11 13 12
-13.889926 -1075.039185 -128.755737 12 14 13
-11.245727 -1073.642822 -128.623383 14 14 13
-8.607403 -1072.159912 -128.480530 15 15 13
-5.975758 -1070.634766 -128.332504 15 15 13
-3.351115 -1069.070923 -128.179733 15 15 13
-0.733857 -1067.352783 -128.008316 15 15 13
1.875279 -1065.600220 -127.832642 15 15 13
4.476166 -1063.835693 -127.655426 14 14 12
7.068357 -1062.015503 -127.471375 14 14 12
9.652247 -1060.215454 -127.289658 15 15 13
12.228601 -1058.482666 -127.115913 16 16 14
14.797058 -1056.762451 -126.943581 17 17 15
17.357828 -1055.061157 -126.773415 18 18 16
19.913088 -1053.478760 -126.617485 17 17 15
22.460260 -1051.864380 -126.457603 16 16 14
25.000429 -1050.270508 -126.300079 16 16 14
27.536100 -1048.781494 -126.155121 15 15 13
30.064653 -1047.285522 -126.009216 13 13 11
32.588886 -1045.869873 -125.872917 12 12 10
35.110710 -1044.571899 -125.750740 13 13 11
37.627655 -1043.302856 -125.631981 12 12 10
40.138100 -1042.017456 -125.511154 11 11 9
42.644867 -1040.784546 -125.396599 11 11 9
45.147903 -1039.594482 -125.287148 11 11 9
47.644081 -1038.374756 -125.174034 12 12 10
50.136250 -1037.186768 -125.064697 11 11 9
52.627605 -1036.087280 -124.965981 11 11 9
55.114368 -1034.995483 -124.868126 11 11 9
57.597481 -1033.926636 -124.772987 11 11 9
60.083359 -1032.985596 -124.693245 11 11 9
62.567116 -1032.078491 -124.617569 11 11 9
65.049095 -1031.206909 -124.546135 13 13 11
67.533806 -1030.434204 -124.486633 12 12 10
70.016289 -1029.678345 -124.429131 13 13 11
72.493530 -1028.895874 -124.368355 13 13 11
74.969643 -1028.144775 -124.311325 13 13 13
77.443497 -1027.407227 -124.255913 13 13 11
79.913750 -1026.665161 -124.199898 13 13 11
82.383812 -1025.960693 -124.148399 13 13 11
84.855492 -1025.311890 -124.103622 14 14 12
87.321945 -1024.635132 -124.055420 14 14 12
89.786766 -1023.973145 -124.008957 14 14 12
92.258972 -1023.423096 -123.976067 14 14 12
94.731041 -1022.896118 -123.945946 14 14 12
97.202316 -1022.383789 -123.917580 13 13 11
99.687256 -1022.031128 -123.908592 13 13 11
102.175728 -1021.726562 -123.905441 13 13 11
104.670143 -1021.489746 -123.910515 13 13 11
107.187080 -1021.472046 -123.942253 11 11 9
109.716415 -1021.565308 -123.987495 11 11 9
112.267365 -1021.845215 -124.055481 10 10 8
114.838463 -1022.286499 -124.143143 9 9 7
117.421448 -1022.808044 -124.240623 8 8 6
120.041595 -1023.617676 -124.373238 6 6 4
122.665077 -1024.418579 -124.504860 5 5 3
125.276611 -1025.087891 -124.620491 5 5 3
127.890717 -1025.748291 -124.735085 3 3 1
130.476196 -1026.157837 -124.819122 3 3 1
133.057465 -1026.516846 -124.897026 3 3 1
135.637024 -1026.846802 -124.971413 3 3 1
138.213837 -1027.141968 -125.041573 3 3 2
140.797974 -1027.476440 -125.116577 3 3 2
143.384659 -1027.814697 -125.192055 3 3 1
145.966034 -1028.101440 -125.261269 3 3 1
148.557861 -1028.447510 -125.337753 3 3 1
151.157791 -1028.833984 -125.419220 3 3 1
153.759918 -1029.219727 -125.500626 3 3 1
156.368469 -1029.632568 -125.585373 3 3 1
158.986145 -1030.088379 -125.675392 3 3 1
161.589996 -1030.440063 -125.752731 3 3 1
164.193344 -1030.775269 -125.828064 3 3 1
166.801666 -1031.128540 -125.905647 3 3 1
169.418701 -1031.521484 -125.988113 3 3 1
172.042313 -1031.939575 -126.073685 3 3 1
174.688751 -1032.477051 -126.173943 3 3 1
177.344406 -1033.050293 -126.278610 3 3 1
180.008026 -1033.650391 -126.386612 3 3 1
182.685806 -1034.311157 -126.502113 3 3 1
185.371429 -1034.995117 -126.620491 3 3 1
188.072418 -1035.742432 -126.746704 3 3 1
190.793350 -1036.575195 -126.883469 2 2 0
193.532288 -1037.479736 -127.029114 3 3 1
196.286377 -1038.438110 -127.181419 3 3 1
199.052139 -1039.430542 -127.337982 2 2 0
201.833801 -1040.477051 -127.501282 2 2 0
204.608261 -1041.459106 -127.656723 2 2 0
207.382721 -1042.414795 -127.808975 2 2 0
210.162506 -1043.371338 -127.961426 2 2 0
212.942871 -1044.305664 -128.111191 2 2 0
215.723450 -1045.217041 -128.258209 2 2 0
218.525848 -1046.208740 -128.415176 2 2 0
221.336472 -1047.213989 -128.573883 2 2 0
224.154129 -1048.227051 -128.733643 2 2 0
226.985641 -1049.278809 -128.898224 3 3 1
229.825912 -1050.344604 -129.064621 3 3 1
232.664307 -1051.376709 -129.226944 4 4 2
235.507202 -1052.404175 -129.388763 4 4 2
238.354568 -1053.427246 -129.550095 4 4 2
241.193222 -1054.388428 -129.703888 5 5 3
244.029556 -1055.317383 -129.853775 5 5 3
246.851410 -1056.163452 -129.993484 5 5 3
249.673096 -1056.989380 -130.130783 5 5 3
252.497437 -1057.807739 -130.267197 4 4 2
255.330765 -1058.644531 -130.405960 3 3 1
258.175781 -1059.510498 -130.548386 2 2 1
261.033997 -1060.410767 -130.695114 3 3 3
263.919861 -1061.402222 -130.853165 3 3 3
266.820374 -1062.430420 -131.015854 3 3 3
269.728180 -1063.465698 -131.179489 4 4 4
272.651764 -1064.540649 -131.348099 4 4 4
275.592133 -1065.658081 -131.522049 5 5 5
278.558441 -1066.851685 -131.705505 5 5 5
281.541351 -1068.083862 -131.893829 6 6 6
284.564697 -1069.442993 -132.097961 6 6 6
287.627411 -1070.921265 -132.316956 5 7 6
290.712860 -1072.454712 -132.542892 5 7 6
293.848541 -1074.141479 -132.787949 6 8 7
297.012207 -1075.897583 -133.041702 6 8 7
300.192108 -1077.678955 -133.298737 6 8 7
303.421722 -1079.603394 -133.573639 6 8 7
306.667999 -1081.551392 -133.851593 5 7 6
309.934204 -1083.533447 -134.133911 4 6 5
313.267670 -1085.712280 -134.440796 3 5 4
316.653931 -1088.033081 -134.765472 4 6 5
320.183258 -1090.798584 -135.145554 3 5 4
323.856812 -1094.001709 -135.580200 3 5 4
327.673706 -1097.628296 -136.067719 1 3 2
331.588928 -1101.518921 -136.588318 1 3 2
335.565948 -1105.547485 -137.126328 1 3 2
339.645172 -1109.841797 -137.697678 1 3 2
343.790833 -1114.280396 -138.287262 1 3 2
348.012878 -1118.891113 -138.898575 1 3 2
352.566895 -1124.482422 -139.632294 3 3 3
357.554718 -1131.352173 -140.525620 3 3 3
362.714905 -1138.652222 -141.473007 4 4 4
367.171875 -1143.655396 -142.134674 9 9 8
376.170227 -1162.568359 -144.530365 32 32 30
383.726288 -1176.782349 -146.341507 57 57 55
387.350342 -1178.852173 -146.639206 62 62 59
390.438995 -1179.277710 -146.731934 64 65 60
393.272858 -1178.933838 -146.728699 68 69 64
396.098328 -1178.569092 -146.722839 71 72 67
398.899902 -1178.137817 -146.708664 72 73 67
401.665466 -1177.606323 -146.681946 72 73 67
404.420715 -1177.051514 -146.652283 74 75 69
407.184662 -1176.528076 -146.626526 74 75 69
409.905243 -1175.887085 -146.586029 75 76 70
412.593933 -1175.163086 -146.535141 77 78 71
415.299866 -1174.496826 -146.491409 80 81 73
418.007812 -1173.844238 -146.449356 81 82 75
420.749390 -1173.292847 -146.419922 79 80 73
423.530670 -1172.857544 -146.404999 78 79 72
426.327515 -1172.469727 -146.395966 78 79 72
429.117950 -1172.068359 -146.385254 79 80 73
431.922150 -1171.708618 -146.379715 80 81 73
434.735046 -1171.375610 -146.377502 80 81 73
437.540588 -1171.026489 -146.373260 79 80 73
440.359558 -1170.716309 -146.373871 80 81 73
443.205536 -1170.480103 -146.383759 80 81 73
446.050415 -1170.242920 -146.393494 80 81 73
448.899323 -1170.018188 -146.404800 81 80 73
451.777405 -1169.870483 -146.425766 80 80 73
454.658142 -1169.730347 -146.447662 79 80 71
457.537964 -1169.588623 -146.469360 79 80 71
460.451599 -1169.533203 -146.501892 79 81 72
463.368652 -1169.485718 -146.535416 80 82 72
466.290466 -1169.449707 -146.570404 78 80 70
469.227509 -1169.450806 -146.610062 80 82 72
472.178833 -1169.486328 -146.654022 80 81 72
475.106140 -1169.461060 -146.690369 80 81 72
478.031464 -1169.430298 -146.726028 80 81 73
480.966614 -1169.422607 -146.764603 80 81 73
483.869720 -1169.336670 -146.793304 80 81 73
486.751465 -1169.199341 -146.815567 84 85 77
489.672668 -1169.156738 -146.849747 85 86 78
492.611359 -1169.154907 -146.889053 85 86 78
495.542328 -1169.133789 -146.925949 83 84 76
498.469452 -1169.103027 -146.961624 78 79 71
501.490051 -1169.288940 -147.024628 87 88 78
504.487213 -1169.417358 -147.080399 94 96 85
507.569397 -1169.738770 -147.160522 80 80 71
510.690704 -1170.145020 -147.251358 70 70 60
513.755066 -1170.416016 -147.325195 94 94 84
516.696228 -1170.404663 -147.363388 100 100 90
519.579407 -1170.261719 -147.384995 107 107 97
522.063477 -1169.227783 -147.294052 108 108 98
523.539734 -1165.964355 -146.921432 94 94 84
-171.797729 -1151.285767 -132.973511 74 76 71
-169.261490 -1153.056274 -133.216019 78 80 74
-166.714691 -1154.815918 -133.457367 80 83 77
-164.146317 -1156.485718 -133.688446 81 84 78
-161.557220 -1158.067261 -133.909378 82 85 78
-159.040863 -1160.245239 -134.199615 88 91 84
-156.476440 -1162.144409 -134.457642 93 96 89
-153.819717 -1163.411133 -134.642395 92 95 88
-151.207336 -1165.074951 -134.873352 92 95 88
-148.581711 -1166.701172 -135.100037 91 94 87
-145.966400 -1168.478516 -135.344406 88 91 84
-143.352982 -1170.346191 -135.599380 85 88 81
-140.682465 -1171.812378 -135.807831 87 90 83
-137.895676 -1172.341919 -135.907486 90 93 87
-135.297043 -1174.553589 -136.202789 74 76 71
-132.959595 -1179.213379 -136.782990 50 52 47
-130.132568 -1179.585938 -136.864685 48 50 45
-127.479927 -1181.619141 -137.139679 60 62 57
-124.825417 -1183.733398 -137.424255 65 67 62
-122.011940 -1184.387329 -137.538925 64 66 61
-119.238190 -1185.478516 -137.704590 60 62 57
-116.516380 -1187.166748 -137.939865 46 48 43
-113.423065 -1185.003784 -137.726456 45 47 44
-110.568123 -1185.328369 -137.802872 47 49 46
-107.063881 -1178.409180 -137.034653 35 37 34
-102.115273 -1154.492065 -134.283340 20 22 19
-98.620888 -1146.413574 -133.378418 16 18 15
-95.403305 -1141.234375 -132.811325 14 16 13
-92.021194 -1133.677734 -131.966385 14 16 13
-88.932945 -1129.456787 -131.510452 14 16 13
-85.918823 -1125.957886 -131.138596 15 16 13
-82.935753 -1122.658691 -130.789841 13 13 11
-79.986382 -1119.617798 -130.471054 14 14 12
-77.058632 -1116.683838 -130.164597 14 14 12
-74.149208 -1113.818359 -129.865967 15 15 13
-71.261078 -1111.076660 -129.581604 16 16 14
-68.397636 -1108.530396 -129.319962 16 16 14
-65.560318 -1106.228638 -129.086761 14 14 12
-62.736179 -1103.969727 -128.858429 12 12 10
-59.932632 -1101.900024 -128.652115 11 11 10
-57.150093 -1100.055054 -128.472000 12 12 12
-54.373219 -1098.149170 -128.284622 11 13 12
-51.606499 -1096.271240 -128.100403 11 13 12
-48.851288 -1094.457031 -127.923538 12 14 13
-46.105957 -1092.678101 -127.750702 11 13 12
-43.370461 -1090.940430 -127.582581 11 13 12
-40.648605 -1089.358398 -127.432625 11 13 12
-37.936527 -1087.849731 -127.291191 10 12 11
-35.233368 -1086.405029 -127.157150 11 13 12
-32.538212 -1085.007690 -127.028595 10 12 11
-29.850885 -1083.664673 -126.906334 10 12 11
-27.168245 -1082.259277 -126.776657 11 13 12
-24.492100 -1080.855469 -126.647079 10 12 11
-21.823702 -1079.520752 -126.525551 10 12 11
-19.160555 -1078.132568 -126.397644 10 12 11
-16.503599 -1076.731201 -126.268089 10 12 11
-13.853503 -1075.365234 -126.142624 11 12 12
-11.209327 -1073.959351 -126.012375 13 13 13
-8.571054 -1072.465332 -125.871674 15 15 13
-5.939634 -1070.958252 -125.729324 15 15 13
-3.315114 -1069.406006 -125.581581 15 15 13
-0.697930 -1067.696167 -125.415161 15 15 13
1.911233 -1065.969727 -125.246689 14 14 12
4.512253 -1064.226929 -125.076180 14 14 12
7.104503 -1062.406494 -124.896400 14 14 12
9.688483 -1060.609009 -124.719208 14 14 12
12.264665 -1058.857422 -124.547333 16 16 14
14.832687 -1057.106934 -124.375473 17 17 15
17.393259 -1055.396851 -124.208275 17 17 15
19.947956 -1053.789795 -124.053123 17 17 15
22.495005 -1052.174927 -123.896965 16 16 14
25.034939 -1050.576172 -123.742599 17 17 15
27.570789 -1049.097900 -123.602379 15 15 13
30.099829 -1047.620972 -123.462227 13 13 11
32.624748 -1046.227539 -123.331848 13 13 11
35.146931 -1044.939087 -123.213799 13 13 11
37.664124 -1043.675659 -123.098640 12 12 10
40.174538 -1042.387817 -122.980507 11 11 9
42.681549 -1041.159302 -122.869316 12 12 10
45.184525 -1039.966309 -122.762260 11 11 9
47.681389 -1038.759644 -122.653519 11 11 9
50.173779 -1037.574219 -122.547203 11 11 9
52.665249 -1036.474854 -122.451019 11 11 9
55.151917 -1035.379150 -122.355209 11 11 9
57.634441 -1034.298218 -122.261086 12 12 10
60.119373 -1033.340088 -122.181450 13 13 11
62.602539 -1032.422974 -122.106621 13 13 11
65.083916 -1031.541870 -122.036026 14 14 12
67.569496 -1030.782104 -121.979767 14 14 12
70.053268 -1030.044434 -121.926102 13 13 11
72.531601 -1029.276001 -121.868729 13 13 11
75.008972 -1028.540527 -121.815224 13 13 13
77.484360 -1027.821045 -121.763573 13 13 11
79.955132 -1027.083008 -121.709686 14 14 12
82.426270 -1026.389282 -121.661011 14 14 12
84.900208 -1025.764404 -121.620506 14 14 12
87.368927 -1025.110474 -121.576492 14 14 12
89.835915 -1024.468872 -121.533905 14 14 12
92.310211 -1023.937256 -121.504372 15 15 13
94.782829 -1023.411377 -121.475502 15 15 13
97.253738 -1022.890625 -121.447212 14 14 12
99.734528 -1022.491638 -121.433388 13 13 11
102.215500 -1022.109985 -121.421616 13 13 11
104.696564 -1021.743591 -121.411644 13 13 11
107.194557 -1021.549683 -121.422218 13 13 11
109.699722 -1021.426758 -121.441238 13 13 11
112.217918 -1021.422852 -121.474472 13 13 11
114.757797 -1021.606201 -121.530045 11 11 9
117.320457 -1021.974426 -121.607697 11 11 9
119.910423 -1022.554077 -121.710625 10 10 8
122.514442 -1023.222900 -121.824249 9 9 7
125.137085 -1024.012451 -121.952347 7 7 5
127.756866 -1024.745605 -122.073753 6 6 4
130.361954 -1025.333130 -122.177811 4 4 2
132.958252 -1025.828613 -122.270912 3 3 1
135.551147 -1026.277344 -122.358467 3 3 1
138.134583 -1026.637451 -122.435440 3 3 2
140.732101 -1027.083618 -122.522751 3 3 3
143.329102 -1027.507812 -122.607452 3 3 1
145.912567 -1027.820190 -122.678810 3 3 1
148.501312 -1028.155518 -122.752945 4 4 2
151.097565 -1028.527832 -122.831528 4 4 2
153.693008 -1028.879883 -122.907722 4 4 2
156.295090 -1029.261230 -122.987457 4 4 2
158.904678 -1029.676392 -123.071274 4 4 2
161.501266 -1029.993896 -123.143402 4 4 2
164.096893 -1030.293213 -123.213387 4 4 2
166.695480 -1030.599243 -123.284187 4 4 2
169.304962 -1030.959473 -123.361542 4 4 2
171.922150 -1031.352661 -123.442856 4 4 2
174.568985 -1031.906006 -123.543449 3 3 1
177.220963 -1032.470825 -123.645470 4 4 2
179.891541 -1033.123657 -123.758095 3 3 1
182.573593 -1033.820435 -123.876060 3 3 1
185.265411 -1034.550171 -123.998024 3 3 1
187.975174 -1035.356201 -124.129219 3 3 1
190.702057 -1036.230713 -124.268730 3 3 1
193.443466 -1037.157593 -124.414581 3 3 1
196.202393 -1038.150146 -124.568420 3 3 1
198.971268 -1039.166992 -124.725235 3 3 1
201.751541 -1040.214233 -124.885796 2 2 0
204.529877 -1041.223389 -125.041855 2 2 0
207.311737 -1042.223389 -125.196854 2 2 0
210.095627 -1043.206787 -125.349945 2 2 0
212.880737 -1044.170654 -125.500748 2 2 2
215.666519 -1045.112671 -125.648987 3 3 2
218.474960 -1046.138550 -125.807411 2 2 1
221.289337 -1047.166626 -125.966156 2 2 1
224.110748 -1048.201660 -126.125832 3 3 2
226.945694 -1049.273560 -126.290016 3 3 2
229.787140 -1050.348999 -126.454720 3 3 1
232.628342 -1051.397583 -126.616249 3 3 1
235.474426 -1052.442871 -126.777466 4 4 2
238.324371 -1053.480591 -126.937828 5 5 3
241.162872 -1054.444580 -127.089363 5 5 3
243.998840 -1055.375244 -127.236938 5 5 3
246.817200 -1056.209595 -127.372910 4 4 2
249.634354 -1057.019775 -127.506058 4 4 2
252.451523 -1057.811523 -127.637009 3 3 1
255.278000 -1058.623901 -127.770508 3 3 1
258.115540 -1059.463135 -127.907333 3 3 2
260.966217 -1060.337036 -128.048416 3 3 3
263.846436 -1061.310181 -128.201584 3 3 3
266.736633 -1062.302124 -128.357086 3 3 3
269.641693 -1063.331543 -128.517212 3 3 3
272.563232 -1064.403320 -128.682556 5 5 5
275.503357 -1065.524658 -128.853989 5 5 5
278.460785 -1066.689209 -129.030731 6 6 6
281.445801 -1067.934448 -129.217346 6 6 6
284.461060 -1069.268188 -129.414795 6 6 6
287.509827 -1070.700073 -129.624268 5 6 6
290.590942 -1072.223022 -129.844879 5 7 6
293.714508 -1073.871338 -130.080856 6 8 7
296.858307 -1075.561768 -130.322037 5 7 6
300.013855 -1077.262451 -130.564590 6 8 7
303.217468 -1079.102051 -130.824158 6 8 7
306.432068 -1080.946655 -131.084457 5 7 6
309.652496 -1082.778198 -131.343292 5 7 6
312.936646 -1084.796631 -131.625000 5 7 6
316.263062 -1086.923828 -131.920090 4 6 5
319.717316 -1089.447632 -132.263611 4 6 5
323.312897 -1092.403320 -132.659897 3 5 4
327.053375 -1095.791992 -133.109116 2 4 3
330.928009 -1099.567383 -133.605698 2 4 3
334.896301 -1103.586914 -134.132294 2 4 3
338.986145 -1107.935791 -134.699310 2 4 3
343.169891 -1112.516479 -135.294891 2 4 3
347.431915 -1117.273438 -135.912277 1 3 2
352.007843 -1122.951172 -136.642349 3 3 3
357.006775 -1129.872314 -137.524551 3 3 3
362.268280 -1137.505737 -138.494171 4 4 4
366.691620 -1142.417358 -139.131943 8 8 6
374.836456 -1158.717163 -141.161057 26 26 24
383.351013 -1175.897461 -143.298828 55 55 53
387.267181 -1178.863525 -143.700623 62 62 59
390.265167 -1179.018921 -143.759033 62 63 58
393.128540 -1178.768066 -143.767792 63 64 59
395.998474 -1178.539062 -143.779205 66 67 62
398.815826 -1178.157349 -143.771927 64 65 59
401.589722 -1177.652832 -143.749588 67 68 62
404.346252 -1177.103882 -143.721802 69 70 64
407.122009 -1176.616943 -143.701569 69 70 64
409.862274 -1176.034058 -143.669556 70 71 65
412.585327 -1175.409424 -143.632401 71 72 67
415.320068 -1174.825195 -143.600159 71 72 66
418.039948 -1174.206299 -143.563629 71 72 66
420.766449 -1173.613037 -143.530212 72 73 67
423.537384 -1173.149414 -143.512665 76 77 71
426.312927 -1172.703735 -143.497299 79 80 74
429.110535 -1172.322998 -143.489868 81 82 76
431.917328 -1171.970947 -143.485931 79 80 74
434.725677 -1171.626709 -143.482941 79 80 74
437.528351 -1171.270630 -143.478485 78 79 73
440.340607 -1170.943359 -143.477570 79 80 73
443.173309 -1170.673340 -143.483627 80 81 75
446.013672 -1170.425537 -143.492432 82 82 75
448.857635 -1170.189209 -143.502640 83 83 75
451.730347 -1170.029053 -143.522202 82 82 74
454.611084 -1169.890259 -143.544388 80 81 73
457.494476 -1169.759033 -143.567505 81 82 73
460.408966 -1169.707031 -143.600357 79 80 72
463.326050 -1169.661133 -143.633972 81 82 73
466.250336 -1169.632568 -143.669724 81 82 74
469.178558 -1169.613037 -143.706589 83 84 75
472.118469 -1169.621582 -143.746933 84 85 77
475.013916 -1169.519775 -143.773651 86 87 79
477.892059 -1169.375732 -143.795197 89 90 82
480.793610 -1169.289185 -143.823822 90 91 83
483.664520 -1169.128784 -143.843323 91 92 84
486.545044 -1168.992188 -143.865753 91 92 84
489.503235 -1169.041138 -143.911102 90 91 83
492.474670 -1169.119873 -143.960129 86 87 79
495.428925 -1169.156128 -144.003906 82 83 75
498.383087 -1169.190674 -144.047501 79 80 72
501.344147 -1169.239868 -144.092896 81 83 73
504.411316 -1169.532837 -144.168442 93 95 84
507.418793 -1169.684204 -144.226486 86 86 76
510.640533 -1170.322632 -144.344803 67 67 57
513.753540 -1170.705444 -144.431549 98 98 88
516.687927 -1170.679321 -144.467712 100 100 90
519.566833 -1170.527588 -144.488358 91 91 81
522.016113 -1169.416016 -144.390167 100 100 90
523.507568 -1166.186890 -144.029709 102 102 91
-171.657272 -1150.965576 -130.112473 77 80 73
-169.113373 -1152.672974 -130.343231 78 81 74
-166.573730 -1154.470947 -130.584381 81 84 77
-164.005569 -1156.130859 -130.809998 80 83 76
-161.407944 -1157.638672 -131.018448 81 84 77
-158.906815 -1159.915771 -131.314362 87 90 83
-156.369400 -1162.006592 -131.589264 92 95 88
-153.710190 -1163.245605 -131.767532 91 94 87
-151.111282 -1165.005371 -132.005066 89 92 85
-148.515442 -1166.860840 -132.253601 86 89 82
-145.893372 -1168.579956 -132.486755 83 86 79
-143.255432 -1170.240845 -132.713394 82 85 79
-140.605881 -1171.874756 -132.937103 83 86 80
-137.855591 -1172.713135 -133.070358 83 85 80
-135.332901 -1175.594238 -133.436234 67 69 64
-132.883743 -1179.266724 -133.892380 48 50 45
-130.064865 -1179.707275 -133.980682 48 50 45
-127.413010 -1181.743042 -134.250748 59 61 56
-124.736099 -1183.637207 -134.504822 63 65 60
-121.923561 -1184.289429 -134.617462 63 65 62
-119.131577 -1185.185547 -134.757965 59 61 58
-116.392403 -1186.678101 -134.966537 46 48 45
-113.331688 -1184.837646 -134.794952 52 54 51
-110.496956 -1185.368164 -134.893860 50 52 49
-106.297165 -1170.645874 -133.251648 31 33 30
-101.722549 -1150.789551 -131.022278 17 19 16
-98.312698 -1143.588745 -130.237091 15 17 14
-95.202835 -1139.624878 -129.821259 14 16 13
-91.892319 -1132.901855 -129.089874 13 15 12
-88.846977 -1129.198120 -128.703171 13 15 12
-85.849152 -1125.894409 -128.362000 13 15 12
-82.878517 -1122.750366 -128.038879 13 14 12
-79.934540 -1119.774780 -127.734833 13 13 11
-77.013237 -1116.926880 -127.445213 13 13 11
-74.111534 -1114.173828 -127.166260 15 15 13
-71.230202 -1111.538330 -126.900604 14 14 12
-68.369545 -1109.040039 -126.650505 15 15 13
-65.536896 -1106.823853 -126.432564 14 14 12
-62.718037 -1104.669189 -126.221535 13 13 11
-59.910542 -1102.538574 -126.013130 13 13 12
-57.126190 -1100.669678 -125.834610 13 13 13
-54.348904 -1098.766602 -125.652039 11 13 12
-51.580318 -1096.859619 -125.468910 11 13 12
-48.823612 -1095.022095 -125.293640 11 13 12
-46.076424 -1093.208252 -125.120972 10 12 11
-43.339001 -1091.429199 -124.952179 10 12 11
-40.616028 -1089.823120 -124.803154 10 12 11
-37.903000 -1088.292480 -124.662689 11 13 12
-35.198284 -1086.802490 -124.526810 11 13 12
-32.502132 -1085.372314 -124.397713 11 13 12
-29.814533 -1084.017822 -124.277222 11 13 12
-27.131454 -1082.591919 -124.148445 10 12 11
-24.455025 -1081.170044 -124.020050 10 12 11
-21.787037 -1079.850220 -123.903305 10 12 11
-19.124266 -1078.479248 -123.780594 9 11 10
-16.467295 -1077.072388 -123.653664 9 11 10
-13.817518 -1075.729004 -123.533951 10 11 11
-11.173487 -1074.339111 -123.408813 12 12 12
-8.534761 -1072.779053 -123.263977 14 14 12
-5.903436 -1071.261719 -123.123962 15 15 13
-3.279135 -1069.750732 -122.984581 15 15 13
-0.661993 -1068.052490 -122.823509 15 15 13
1.947183 -1066.337280 -122.660393 14 14 12
4.548340 -1064.617676 -122.496643 14 14 12
7.140781 -1062.813232 -122.322998 14 14 12
9.724874 -1061.016479 -122.150131 14 14 12
12.301461 -1059.287476 -121.984985 15 15 13
14.869419 -1057.522339 -121.815544 16 16 14
17.429419 -1055.773193 -121.647842 15 15 13
19.983738 -1054.145264 -121.494049 16 16 14
22.530592 -1052.522339 -121.340736 16 16 14
25.070120 -1050.908447 -121.188362 17 17 15
27.606672 -1049.457275 -121.054718 15 15 13
30.137867 -1048.051025 -120.926193 14 14 12
32.661694 -1046.618164 -120.794502 13 13 11
35.184177 -1045.335571 -120.680107 13 13 11
37.701996 -1044.085571 -120.569420 12 12 10
40.212593 -1042.798584 -120.454369 12 12 10
42.719604 -1041.566406 -120.345589 12 12 10
45.223358 -1040.387329 -120.242897 12 12 10
47.721077 -1039.194702 -120.138565 11 11 9
50.214153 -1038.018555 -120.036064 11 11 9
52.706135 -1036.924194 -119.942978 11 11 9
55.192665 -1035.821289 -119.848839 11 11 9
57.674946 -1034.731812 -119.756195 12 12 10
60.159367 -1033.761230 -119.677292 13 13 11
62.642006 -1032.832397 -119.603180 13 13 11
65.122452 -1031.934082 -119.532562 13 13 11
67.609238 -1031.190308 -119.479851 14 14 12
70.094437 -1030.470825 -119.429909 13 13 11
72.573814 -1029.713989 -119.375595 13 13 11
75.052734 -1028.995728 -119.325714 13 13 12
77.530525 -1028.303711 -119.278854 13 13 11
80.001801 -1027.567383 -119.226799 13 13 11
82.474510 -1026.888306 -119.181358 13 13 11
84.950462 -1026.282715 -119.144440 13 13 11
87.422569 -1025.662476 -119.105789 14 14 12
89.893433 -1025.058350 -119.068962 15 15 13
92.371284 -1024.558594 -119.044273 15 15 13
94.846672 -1024.054565 -119.019066 15 15 13
97.319389 -1023.544678 -118.993141 14 14 12
99.798088 -1023.116577 -118.976723 14 14 12
102.275375 -1022.691589 -118.960663 14 14 12
104.749710 -1022.254578 -118.943169 14 14 12
107.234001 -1021.927673 -118.938499 14 14 12
109.722435 -1021.650024 -118.939575 14 14 12
112.216438 -1021.431213 -118.947502 14 14 12
114.728371 -1021.376099 -118.974556 13 13 11
117.258392 -1021.475525 -119.019669 12 12 10
119.816826 -1021.806885 -119.091911 12 12 10
122.391235 -1022.253357 -119.177650 11 11 9
125.011299 -1023.047974 -119.304153 9 9 7
127.620392 -1023.721680 -119.416550 8 8 6
130.230667 -1024.375732 -119.526711 7 7 5
132.841049 -1025.003052 -119.633774 5 5 3
135.453033 -1025.616211 -119.739227 4 4 2
138.052383 -1026.111450 -119.830917 4 4 3
140.660049 -1026.646118 -119.927284 4 4 3
143.268097 -1027.162231 -120.021492 4 4 2
145.857269 -1027.526245 -120.097916 3 3 1
148.448059 -1027.886230 -120.173889 3 3 1
151.041214 -1028.247559 -120.250053 3 3 1
153.628479 -1028.555420 -120.319977 5 5 3
156.221939 -1028.891479 -120.393219 4 4 2
158.822083 -1029.257080 -120.469971 4 4 2
161.410126 -1029.532349 -120.536148 4 4 2
163.996201 -1029.784546 -120.599617 4 4 2
166.584885 -1030.042603 -120.663818 5 5 3
169.185471 -1030.362427 -120.735298 4 4 2
171.791397 -1030.702393 -120.809166 4 4 2
174.431870 -1031.232788 -120.905457 4 4 2
177.080704 -1031.794067 -121.005417 4 4 2
179.747681 -1032.440674 -121.115471 4 4 2
182.440506 -1033.212280 -121.240280 3 3 1
185.141907 -1034.008179 -121.368004 3 3 1
187.862839 -1034.887207 -121.505577 3 3 1
190.597839 -1035.816528 -121.649147 3 3 1
193.347458 -1036.796997 -121.798805 3 3 1
196.108551 -1037.810181 -121.952385 3 3 1
198.876877 -1038.833008 -122.107162 3 3 1
201.655045 -1039.878052 -122.264656 2 2 0
204.435425 -1040.906250 -122.420227 3 3 1
207.221329 -1041.934692 -122.575897 3 3 1
210.011368 -1042.956421 -122.730843 3 3 1
212.799774 -1043.943481 -122.881775 4 4 2
215.593338 -1044.930054 -123.032715 4 4 2
218.407867 -1045.991211 -123.192551 3 3 1
221.224609 -1047.036133 -123.350533 3 3 1
224.050949 -1048.099854 -123.510803 4 4 2
226.892609 -1049.207764 -123.676384 4 4 2
229.741470 -1050.321655 -123.842758 3 3 1
232.581985 -1051.371460 -124.001610 4 4 2
235.428268 -1052.421997 -124.160629 5 5 3
238.280197 -1053.472656 -124.319748 5 5 3
241.114914 -1054.423950 -124.467171 5 5 3
243.946289 -1055.339111 -124.610374 5 5 3
246.768875 -1056.195557 -124.746704 4 4 2
249.580765 -1056.987549 -124.875443 3 3 1
252.388977 -1057.745972 -125.000275 2 2 0
255.210098 -1058.540527 -125.129440 2 2 0
258.042480 -1059.363281 -125.262001 2 2 1
260.884491 -1060.206787 -125.397095 2 2 2
263.757507 -1061.156006 -125.544785 2 2 2
266.644348 -1062.139893 -125.696663 2 2 2
269.539581 -1063.135742 -125.850029 3 3 3
272.454193 -1064.186157 -126.009933 3 3 3
275.393066 -1065.308228 -126.178452 4 4 4
278.355865 -1066.499023 -126.355186 4 4 4
281.338348 -1067.739868 -126.537979 4 4 4
284.353088 -1069.077026 -126.732292 5 5 5
287.402893 -1070.517944 -126.939056 4 5 5
290.468658 -1071.989868 -127.149597 4 6 5
293.583160 -1073.610840 -127.377975 4 6 5
296.713135 -1075.256958 -127.609482 5 7 6
299.845032 -1076.879395 -127.838257 5 7 6
303.029633 -1078.658447 -128.085815 5 7 6
306.219391 -1080.423218 -128.331772 5 7 6
309.407898 -1082.151367 -128.573517 5 7 6
312.666504 -1084.090576 -128.840515 4 6 5
315.968750 -1086.144775 -129.121353 4 6 5
319.352722 -1088.439941 -129.431091 4 6 5
322.856750 -1091.099487 -129.784454 4 6 5
326.490723 -1094.147217 -130.184296 3 5 4
330.291687 -1097.695923 -130.644150 3 5 4
334.203094 -1101.548096 -131.140472 2 4 3
338.295715 -1105.926270 -131.699890 2 4 3
342.498169 -1110.587524 -132.293396 2 4 3
346.799561 -1115.489990 -132.916061 2 3 2
351.413422 -1121.306885 -133.648331 3 3 3
356.423309 -1128.279907 -134.519226 3 3 3
361.794403 -1136.273315 -135.512604 3 3 3
366.690582 -1142.666626 -136.315125 8 8 6
373.385284 -1154.502441 -137.769318 22 22 20
382.951996 -1174.939087 -140.253677 52 52 50
387.118103 -1178.674683 -140.739960 60 61 57
390.051270 -1178.638916 -140.774841 60 61 57
392.970276 -1178.560181 -140.804581 62 63 58
395.879333 -1178.451782 -140.830765 64 65 60
398.719788 -1178.141479 -140.832748 67 68 62
401.508026 -1177.681641 -140.816803 69 70 64
404.295166 -1177.223999 -140.801086 71 72 66
407.087677 -1176.787231 -140.787857 71 72 67
409.850739 -1176.271118 -140.765060 72 73 67
412.588562 -1175.689209 -140.734375 72 73 67
415.315704 -1175.084106 -140.700851 72 73 67
418.034027 -1174.461670 -140.665207 73 74 68
420.727905 -1173.778564 -140.622238 81 82 76
423.499664 -1173.318604 -140.606064 83 84 78
426.296112 -1172.931641 -140.598618 83 84 78
429.091095 -1172.544556 -140.591141 83 84 78
431.897797 -1172.193481 -140.587967 83 84 78
434.707886 -1171.854858 -140.586288 83 84 78
437.533936 -1171.562134 -140.590118 80 81 74
440.328064 -1171.187500 -140.584061 82 83 75
443.141235 -1170.866699 -140.584473 84 85 77
445.965759 -1170.578857 -140.588852 85 86 78
448.806122 -1170.334473 -140.598434 86 86 77
451.666779 -1170.144775 -140.614594 86 87 77
454.536621 -1169.979736 -140.633743 85 87 77
457.415466 -1169.838623 -140.655746 85 87 76
460.343781 -1169.823608 -140.692963 84 86 76
463.221100 -1169.679199 -140.714584 86 88 77
466.106384 -1169.555298 -140.738663 87 89 78
468.929779 -1169.278076 -140.744232 91 93 83
471.800415 -1169.119873 -140.764160 93 94 85
474.637878 -1168.880981 -140.774353 95 96 87
477.480988 -1168.657837 -140.786423 97 98 90
480.412994 -1168.651978 -140.824738 96 97 89
483.333130 -1168.616211 -140.859451 96 97 89
486.267151 -1168.613281 -140.898132 96 97 89
489.284027 -1168.806763 -140.960571 91 92 84
492.279236 -1168.945435 -141.016403 87 88 80
495.246887 -1169.016602 -141.064087 84 85 77
498.263794 -1169.201172 -141.125488 80 81 73
501.236938 -1169.280640 -141.174210 78 80 71
504.323944 -1169.621582 -141.254578 91 93 83
507.338409 -1169.790771 -141.314194 85 86 75
510.607330 -1170.539062 -141.443970 59 60 50
513.677612 -1170.825928 -141.517883 94 95 84
516.710754 -1171.024292 -141.581100 109 109 99
519.540283 -1170.761719 -141.588455 89 89 79
521.783875 -1169.190918 -141.437119 81 81 71
523.637756 -1166.770264 -141.182571 99 99 89
-171.533279 -1150.756592 -127.267136 79 82 75
-168.986542 -1152.435425 -127.490326 80 83 76
-166.440231 -1154.177612 -127.720642 81 84 77
-163.888306 -1155.942749 -127.953644 78 81 74
-161.269699 -1157.289185 -128.140244 79 82 75
-158.842560 -1160.101562 -128.489777 90 93 86
-156.285370 -1162.041382 -128.742554 93 96 89
-153.606903 -1163.127197 -128.900543 92 94 89
-151.032547 -1165.070312 -129.153931 87 90 84
-148.443970 -1166.979004 -129.403595 84 86 81
-145.833527 -1168.788452 -129.642349 80 82 77
-143.178970 -1170.308960 -129.849091 80 82 77
-140.494003 -1171.638916 -130.034714 80 82 77
-137.834793 -1173.250122 -130.251740 76 78 73
-135.390991 -1176.831665 -130.688339 57 59 54
-132.758041 -1178.871094 -130.953354 47 49 44
-129.969635 -1179.574829 -131.069656 49 51 46
-127.333778 -1181.751099 -131.350159 61 63 58
-124.634293 -1183.420044 -131.574249 62 64 60
-121.833107 -1184.170410 -131.695984 62 64 59
-119.047455 -1185.118774 -131.839874 56 58 53
-116.235344 -1185.845703 -131.959122 50 52 47
-113.225258 -1184.510864 -131.848236 53 55 52
-110.230148 -1183.273071 -131.748123 44 46 43
-105.091187 -1157.948853 -128.957550 22 24 21
-101.470329 -1148.699585 -127.961380 15 17 14
-98.112930 -1142.044556 -127.254578 14 16 13
-95.013161 -1138.144165 -126.855301 14 16 13
-91.780899 -1132.343994 -126.243332 14 16 13
-88.762642 -1128.959473 -125.901199 13 15 12
-85.778656 -1125.819214 -125.586197 13 15 12
-82.819832 -1122.821655 -125.286964 14 14 12
-79.883858 -1119.948242 -125.001442 14 14 12
-76.970078 -1117.203003 -124.730095 15 15 13
-74.076485 -1114.569214 -124.471062 15 15 13
-71.203148 -1112.061157 -124.225952 15 15 13
-68.348473 -1109.667114 -123.993462 15 15 13
-65.517029 -1107.481201 -123.784164 15 15 13
-62.697334 -1105.322754 -123.577805 14 14 12
-59.891407 -1103.233643 -123.379097 13 13 13
-57.104641 -1101.331421 -123.201225 13 13 13
-54.326042 -1099.414429 -123.021584 11 13 12
-51.555969 -1097.488647 -122.840843 11 13 12
-48.798569 -1095.648682 -122.669609 11 13 12
-46.050686 -1093.832153 -122.500900 10 12 11
-43.313183 -1092.066284 -122.337761 10 12 11
-40.588860 -1090.439819 -122.190208 10 12 11
-37.874306 -1088.881104 -122.050148 10 12 11
-35.168545 -1087.373779 -121.915779 10 12 11
-32.471050 -1085.912964 -121.786560 11 13 12
-29.781694 -1084.506836 -121.663406 12 14 13
-27.098263 -1083.077881 -121.537582 11 13 12
-24.421690 -1081.662354 -121.413193 11 13 12
-21.752943 -1080.317749 -121.296715 10 12 11
-19.089855 -1078.942139 -121.176643 10 12 11
-16.432760 -1077.542969 -121.053841 9 11 10
-13.782596 -1076.187866 -120.935936 10 11 10
-11.138283 -1074.791138 -120.813232 12 12 12
-8.499197 -1073.206055 -120.669212 15 15 13
-5.867882 -1071.730225 -120.537422 15 15 13
-3.243299 -1070.194580 -120.398781 15 15 13
-0.625944 -1068.523926 -120.244812 15 15 13
1.983548 -1066.826660 -120.087738 14 14 12
4.585066 -1065.117188 -119.929176 14 14 12
7.177879 -1063.318359 -119.760414 14 14 12
9.762493 -1061.538208 -119.593643 14 14 12
12.339015 -1059.774658 -119.428642 14 14 12
14.907444 -1058.020142 -119.264572 14 14 12
17.468077 -1056.287354 -119.102837 15 15 13
20.022249 -1054.633911 -118.949966 16 16 14
22.569342 -1053.007324 -118.800041 17 17 15
25.109325 -1051.398926 -118.652077 17 17 15
27.646460 -1049.956665 -118.522827 16 16 14
30.177311 -1048.527222 -118.394936 14 14 12
32.702171 -1047.116699 -118.269112 13 13 11
35.225285 -1045.841553 -118.158539 13 13 11
37.743954 -1044.603882 -118.052139 13 13 11
40.255672 -1043.334351 -117.942055 13 13 11
42.763588 -1042.112549 -117.837303 12 12 10
45.268974 -1040.958862 -117.740204 12 12 10
47.768639 -1039.795654 -117.641945 12 12 10
50.263657 -1038.645752 -117.545143 12 12 10
52.756779 -1037.559814 -117.455544 12 12 10
55.244415 -1036.463989 -117.364731 12 12 10
57.727020 -1035.367310 -117.273766 13 13 11
60.212391 -1034.400513 -117.197502 14 14 12
62.696037 -1033.475952 -117.125984 13 13 11
65.178223 -1032.593018 -117.059143 13 13 11
67.666168 -1031.854858 -117.008713 13 13 11
70.152382 -1031.138184 -116.960693 13 13 11
72.632378 -1030.378662 -116.907745 13 13 11
75.111412 -1029.651245 -116.858429 14 14 13
77.588547 -1028.940308 -116.810936 14 14 12
80.061554 -1028.216675 -116.761955 13 13 11
82.536110 -1027.550659 -116.719490 14 14 12
85.015274 -1026.973511 -116.687134 14 14 12
87.491798 -1026.394165 -116.654488 15 15 13
89.966972 -1025.827271 -116.623230 15 15 13
92.448158 -1025.352295 -116.602409 15 15 13
94.925171 -1024.853516 -116.578865 14 14 12
97.399521 -1024.348755 -116.554611 14 14 12
99.878700 -1023.913696 -116.538284 15 15 13
102.355156 -1023.469238 -116.520859 14 14 12
104.827744 -1023.004883 -116.501137 14 14 12
107.307335 -1022.624146 -116.490952 14 14 12
109.789825 -1022.283630 -116.485336 14 14 12
112.276237 -1021.990112 -116.485085 14 14 12
114.776497 -1021.827332 -116.499771 14 14 12
117.290298 -1021.784668 -116.528198 14 14 12
119.830612 -1021.963928 -116.582016 13 13 11
122.385452 -1022.252563 -116.648376 12 12 10
124.964188 -1022.719727 -116.735207 11 11 9
127.548172 -1023.207275 -116.824409 10 10 8
130.143982 -1023.765015 -116.921692 9 9 7
132.753128 -1024.400635 -117.027939 7 7 5
135.356155 -1024.963989 -117.125946 6 6 4
137.960373 -1025.512939 -117.222343 6 6 5
140.571930 -1026.092529 -117.322304 6 6 5
143.194214 -1026.725098 -117.428383 5 5 3
145.787857 -1027.133545 -117.508781 4 4 2
148.386963 -1027.562988 -117.591614 4 4 2
150.984009 -1027.961548 -117.670959 3 3 1
153.572418 -1028.287231 -117.741951 3 3 1
156.160614 -1028.598511 -117.811310 3 3 1
158.750031 -1028.905273 -117.880173 3 3 1
161.324738 -1029.107056 -117.936981 4 4 2
163.898727 -1029.295532 -117.992294 3 3 1
166.472656 -1029.475708 -118.046669 5 5 3
169.059174 -1029.724243 -118.108925 5 5 3
171.653442 -1030.009155 -118.175385 5 5 3
174.280334 -1030.474854 -118.262695 5 5 3
176.923065 -1031.016479 -118.358780 6 6 4
179.582291 -1031.634766 -118.463722 6 6 4
182.272568 -1032.407959 -118.586571 6 6 4
184.976974 -1033.236328 -118.715836 5 5 3
187.708557 -1034.188599 -118.859444 4 4 2
190.454010 -1035.188232 -119.008591 3 3 1
193.210922 -1036.220459 -119.161552 3 3 1
195.977112 -1037.272461 -119.316872 3 3 1
198.749725 -1038.328979 -119.472801 3 3 1
201.524033 -1039.365234 -119.626450 3 3 1
204.303085 -1040.397461 -119.779709 3 3 1
207.084366 -1041.413330 -119.931160 3 3 1
209.878204 -1042.464600 -120.086761 4 4 2
212.664444 -1043.451294 -120.234985 5 5 3
215.459030 -1044.452881 -120.384987 5 5 3
218.274414 -1045.527832 -120.543564 4 4 2
221.091431 -1046.583618 -120.699982 4 4 2
223.924149 -1047.686279 -120.861900 4 4 2
226.765884 -1048.803345 -121.025574 4 4 2
229.615036 -1049.927124 -121.190094 5 5 3
232.455704 -1050.986084 -121.347191 5 5 3
235.310242 -1052.081543 -121.508583 6 6 4
238.162903 -1053.143066 -121.666122 6 6 4
241.000015 -1054.112305 -121.813042 6 6 4
243.831482 -1055.034912 -121.954628 6 6 4
246.647522 -1055.870483 -122.086189 4 4 2
249.461197 -1056.677002 -122.214432 3 3 1
252.268326 -1057.437988 -122.337440 2 2 0
255.089035 -1058.237671 -122.465012 2 2 0
257.922058 -1059.069824 -122.596397 2 2 2
260.769348 -1059.941284 -122.732414 2 2 2
263.635620 -1060.869873 -122.875130 2 2 2
266.513611 -1061.824951 -123.020988 2 2 2
269.411835 -1062.839233 -123.173813 2 2 2
272.328430 -1063.903809 -123.332535 3 3 3
275.262421 -1065.013428 -123.496590 3 3 3
278.231018 -1066.232422 -123.673439 3 3 3
281.227509 -1067.532471 -123.859802 3 3 3
284.244263 -1068.882446 -124.052078 4 4 4
287.285828 -1070.298218 -124.252098 3 4 4
290.347290 -1071.759644 -124.457550 3 5 4
293.458527 -1073.374390 -124.680954 4 6 5
296.583923 -1075.009888 -124.906891 4 6 5
299.703613 -1076.594116 -125.126961 5 7 6
302.873383 -1078.326660 -125.364441 5 7 6
306.048920 -1080.047607 -125.600685 5 7 6
309.223602 -1081.734497 -125.833092 5 7 6
312.463257 -1083.615234 -126.088203 4 6 5
315.740753 -1085.592041 -126.354698 4 6 5
319.096527 -1087.799683 -126.648262 4 6 5
322.549133 -1090.295166 -126.975594 4 6 5
326.106812 -1093.098511 -127.339073 4 6 5
329.822845 -1096.378418 -127.758423 3 5 4
333.649811 -1099.967773 -128.214188 2 4 3
337.648865 -1104.057861 -128.728745 2 4 3
341.840607 -1108.703491 -129.308563 1 3 2
346.121857 -1113.560303 -129.913406 2 3 2
350.770599 -1119.507446 -130.646164 3 3 3
355.780670 -1126.499756 -131.501694 3 3 3
361.086914 -1134.308594 -132.453293 3 3 3
365.913818 -1140.506348 -133.216705 6 6 4
372.039062 -1150.609131 -134.438080 18 18 16
382.364899 -1173.404663 -137.147720 51 51 49
386.807800 -1177.995972 -137.724716 62 62 60
389.847565 -1178.289551 -137.798050 65 65 63
392.670563 -1177.929077 -137.794693 69 70 65
395.601135 -1177.892090 -137.829269 71 72 67
398.455536 -1177.629639 -137.837387 72 73 68
401.295746 -1177.328491 -137.840942 72 73 68
404.100555 -1176.927368 -137.832764 73 74 69
406.958801 -1176.684937 -137.843185 72 73 68
409.767059 -1176.301514 -137.837036 71 72 67
412.485840 -1175.667847 -137.801468 73 74 69
415.112122 -1174.781006 -137.736084 80 81 76
417.816864 -1174.125122 -137.697815 83 84 78
420.578827 -1173.636230 -137.679138 83 84 78
423.359314 -1173.204102 -137.667130 84 85 79
426.144653 -1172.789917 -137.657211 85 86 80
428.948212 -1172.429932 -137.653656 85 86 80
431.738190 -1172.036743 -137.646164 87 88 82
434.555389 -1171.720703 -137.647736 86 87 81
437.344849 -1171.333740 -137.640945 86 87 81
440.138519 -1170.961792 -137.635895 87 88 82
442.962952 -1170.674805 -137.640854 87 88 82
445.792084 -1170.402466 -137.647522 87 88 82
448.646027 -1170.197144 -137.662079 87 87 81
451.511932 -1170.024292 -137.680466 87 88 80
454.362244 -1169.812378 -137.694229 88 89 81
457.178162 -1169.514282 -137.697815 89 90 82
460.010284 -1169.259888 -137.706558 91 92 84
462.899353 -1169.151001 -137.732468 92 93 85
465.774048 -1169.006470 -137.754166 92 93 85
468.619476 -1168.789795 -137.767334 94 95 87
471.473511 -1168.595947 -137.783188 95 96 88
474.356903 -1168.475464 -137.807709 96 97 89
477.250854 -1168.381104 -137.835327 98 99 91
480.183075 -1168.379761 -137.873947 98 99 91
483.134979 -1168.424805 -137.918060 97 98 90
486.083160 -1168.459106 -137.960922 95 96 88
489.059235 -1168.558594 -138.011505 90 91 83
492.032959 -1168.650269 -138.061172 87 88 80
495.021393 -1168.774536 -138.114716 86 87 79
498.065155 -1169.025635 -138.183319 84 85 77
501.087738 -1169.223633 -138.245621 76 78 70
504.219055 -1169.669800 -138.337387 87 89 80
507.250244 -1169.879395 -138.401123 88 89 79
510.580597 -1170.770020 -138.545685 61 62 52
513.537781 -1170.800659 -138.588257 87 89 78
516.723877 -1171.347412 -138.692108 109 110 99
519.557678 -1171.094727 -138.701050 99 99 89
521.396912 -1168.619629 -138.445984 78 78 68
523.834045 -1167.500610 -138.351913 78 78 68
-171.398376 -1150.472778 -124.416527 79 82 75
-168.857101 -1152.179321 -124.638374 81 84 77
-166.318878 -1153.968628 -124.869308 81 84 77
-163.784073 -1155.846924 -125.110031 78 81 74
-161.160248 -1157.148071 -125.288193 78 81 74
-158.742340 -1160.021118 -125.637215 90 93 86
-156.197342 -1162.045654 -125.894203 94 97 90
-153.513229 -1163.081909 -126.043915 90 93 86
-150.962814 -1165.205444 -126.311920 85 88 81
-148.367615 -1167.057495 -126.550537 83 85 79
-145.750565 -1168.808960 -126.778336 80 82 77
-143.082748 -1170.213501 -126.968483 79 81 76
-140.436111 -1171.858521 -127.184921 76 78 73
-137.839630 -1174.009033 -127.456505 68 70 65
-135.305649 -1176.805786 -127.798630 53 55 50
-132.652771 -1178.658325 -128.038055 50 52 47
-129.890335 -1179.588501 -128.177078 52 54 49
-127.247673 -1181.693481 -128.444244 61 63 60
-124.520035 -1183.082153 -128.633438 59 61 58
-121.746620 -1184.090088 -128.781189 58 60 55
-118.943085 -1184.847168 -128.901642 54 56 52
-116.126907 -1185.515747 -129.012482 53 55 52
-113.141647 -1184.425537 -128.931351 54 56 53
-109.345650 -1174.431885 -127.877777 33 35 32
-104.615913 -1153.427734 -125.620735 18 20 17
-101.319008 -1147.769287 -125.039284 16 18 15
-97.966438 -1141.129395 -124.350204 16 18 15
-94.837997 -1136.837891 -123.917473 16 18 15
-91.673111 -1131.830322 -123.406158 16 18 15
-88.678741 -1128.725708 -123.102730 15 17 14
-85.711121 -1125.782959 -122.816803 14 16 13
-82.761925 -1122.903198 -122.537598 15 15 13
-79.835777 -1120.158569 -122.273018 15 15 13
-76.929527 -1117.517822 -122.019630 15 15 13
-74.044479 -1115.011841 -121.780861 15 15 13
-71.176506 -1112.590820 -121.551231 15 15 13
-68.326279 -1110.276001 -121.333107 15 15 13
-65.496666 -1108.130615 -121.133423 14 14 12
-62.678574 -1106.011963 -120.936531 13 13 11
-59.872292 -1103.929688 -120.743507 14 14 12
-57.083958 -1102.010986 -120.568298 13 14 13
-54.303673 -1100.073242 -120.390892 12 14 13
-51.532581 -1098.139404 -120.213791 13 15 14
-48.774231 -1096.292236 -120.046097 12 14 13
-46.025684 -1094.474854 -119.881554 11 13 12
-43.287746 -1092.714233 -119.723152 11 13 12
-40.562489 -1091.079834 -119.578506 10 12 11
-37.846931 -1089.509766 -119.440842 11 13 12
-35.139771 -1087.976807 -119.307175 11 13 12
-32.440975 -1086.489868 -119.178467 11 13 12
-29.750555 -1085.061768 -119.056145 11 13 12
-27.066389 -1083.620483 -118.932281 11 13 12
-24.389246 -1082.197876 -118.810402 11 13 12
-21.720119 -1080.854614 -118.697174 11 12 11
-19.056625 -1079.478882 -118.580284 10 12 11
-16.399036 -1078.073730 -118.460060 10 12 11
-13.748208 -1076.694946 -118.342674 10 12 11
-11.103285 -1075.266846 -118.219757 12 12 12
-8.464253 -1073.731689 -118.084938 15 15 13
-5.832336 -1072.200928 -117.950516 16 16 14
-3.207517 -1070.681885 -117.817291 16 16 14
-0.589853 -1069.028076 -117.669098 16 16 14
2.019971 -1067.330322 -117.515938 15 15 13
4.621790 -1065.614502 -117.360695 15 15 13
7.215006 -1063.825562 -117.197266 15 15 13
9.799917 -1062.040527 -117.034142 15 15 13
12.376973 -1060.291748 -116.874924 14 14 12
